ply
format ascii 1.0
element vertex 1693
property float x
property float y
property float z
end_header
0.014032 -0.885865 -0.211065
-0.031323 0.622003 -0.001696
0.026364 -0.775586 -0.205997
0.047667 -0.032376 -0.113234
0.170410 0.537123 0.138352
0.056376 -0.045166 -0.189590
0.041826 -0.425658 -0.175402
0.060845 0.102900 -0.238857
-0.133049 0.493203 -0.054707
0.076163 0.172827 -0.094516
-0.069714 0.227552 -0.156519
-0.149437 0.451284 -0.052907
0.318282 0.507466 0.181579
0.148063 0.583915 -0.185653
0.004106 -0.904795 -0.185450
0.043673 0.009758 -0.080165
0.196822 0.662982 0.272817
0.131404 0.211494 0.065416
0.038433 -0.405317 -0.156277
0.078009 0.523794 -0.094991
0.277338 0.658320 -0.217695
-0.103001 0.232240 -0.086461
0.061946 -0.291281 -0.147718
0.079340 0.085393 -0.015647
0.150936 0.683896 -0.144355
0.139514 0.536816 -0.198314
0.037233 -0.105388 -0.119772
0.153980 0.929873 -0.116034
0.048531 -0.238121 -0.144117
-0.072477 0.190878 -0.142235
-0.123145 0.407667 -0.061545
0.065378 0.568556 0.232678
0.027966 -0.924268 -0.197788
-0.102865 0.308132 -0.039475
0.222815 0.561468 -0.129475
-0.138016 0.455310 -0.052096
-0.067968 0.150601 -0.115823
-0.046213 0.425980 -0.086066
0.042883 0.124168 -0.260588
0.098550 0.748640 0.017609
0.010423 -0.741170 -0.170281
0.021125 -0.083149 -0.114005
-0.219332 0.302108 -0.048889
0.026396 0.016331 -0.109414
0.135649 0.482328 -0.204885
0.185328 0.501525 -0.162676
0.035208 -0.028634 -0.125996
0.167516 0.507746 0.134888
0.047645 -0.590544 -0.169363
0.265977 0.594961 0.147951
0.124932 0.501520 -0.211281
-0.060753 0.449110 -0.101769
0.088042 0.883376 -0.036381
0.064260 -0.160434 -0.141485
0.086688 0.011604 -0.201931
0.058931 -0.486261 -0.167183
0.016694 0.228426 -0.269373
0.093848 0.074964 -0.198822
0.054118 -0.405654 -0.165127
0.053126 0.064197 -0.224195
0.019904 -0.917850 -0.204220
0.252879 0.500186 0.137344
0.083654 0.679732 0.228435
-0.071974 0.190570 -0.135460
0.065889 0.732381 0.094416
0.064386 0.438364 -0.080709
-0.136468 0.382301 -0.065993
0.052810 0.212579 -0.110114
0.239983 0.476578 0.142774
0.026116 -0.616625 -0.170546
0.048624 -0.283640 -0.149496
0.258548 0.417724 0.120111
0.061685 0.235075 -0.108792
0.149545 0.837430 0.014761
-0.269562 0.424375 -0.046873
0.340258 0.334292 -0.145695
0.177898 0.485221 0.131576
0.186406 0.571257 0.142488
-0.007992 -0.080649 -0.126188
0.397561 0.708232 -0.187795
0.117126 0.136343 0.019849
0.218666 0.579976 0.242246
0.141846 0.721730 -0.083996
0.121437 0.620407 -0.227458
0.175832 0.625706 0.074747
-0.146398 0.470111 -0.041081
0.253905 0.530572 0.140334
-0.131061 0.466249 -0.069508
0.034063 -0.803343 -0.199617
0.133455 0.265293 0.074336
0.032656 -0.904534 -0.219975
0.040660 -0.738405 -0.171832
0.221059 0.677231 -0.142272
0.054121 0.146617 -0.115452
0.036871 0.919301 -0.186763
0.028456 -0.126971 -0.132890
0.229102 0.497068 0.122724
0.297843 0.627451 0.127621
0.089849 0.079478 -0.022540
0.108099 0.583213 -0.134387
0.117515 0.376784 -0.211189
0.096127 0.146246 0.031812
-0.060219 0.245140 -0.084525
0.042676 0.081066 -0.117062
-0.249192 0.328234 -0.047713
0.087243 0.193651 -0.215522
0.275658 0.596558 0.170876
0.208927 0.447905 0.132899
-0.112362 0.263505 -0.061173
-0.089174 0.165605 -0.094427
0.272404 0.698077 0.152681
-0.086596 0.205264 -0.146345
0.017828 -0.035462 -0.128872
0.025430 -0.132159 -0.121332
0.015155 -0.962750 -0.189636
0.078066 0.062981 -0.220171
0.047793 -0.541001 -0.166231
-0.034182 1.023338 0.134693
0.032991 -0.587228 -0.160623
0.093252 0.244226 -0.214595
0.129519 0.491370 -0.191701
0.075119 0.599389 -0.096687
0.148327 0.434111 0.126834
-0.130797 0.335212 -0.080827
-0.090021 0.179871 -0.089230
0.211435 0.738613 0.162833
-0.288530 0.452401 -0.031268
-0.109413 0.326155 -0.082577
0.163224 0.405579 0.108967
0.276631 0.575233 0.158431
-0.131240 0.428216 -0.059970
0.081230 0.763219 -0.212377
0.139096 0.723602 0.151427
-0.143671 0.462349 -0.066466
-0.085885 0.504354 0.026219
-0.088551 0.161107 -0.086194
0.052207 -0.185027 -0.128466
0.023616 -0.621868 -0.165640
0.112042 0.176653 0.038609
-0.173108 0.238361 -0.061949
0.234575 0.445438 0.136150
-0.206686 0.285465 -0.059441
0.064418 0.682646 -0.132640
0.105087 0.321545 -0.212431
0.169855 0.400948 0.094501
-0.040930 0.323082 -0.079083
0.061275 0.337119 -0.090867
0.220047 0.425649 0.115337
-0.071113 0.459037 -0.098330
0.034598 -0.543993 -0.169002
0.016777 -0.008539 -0.118420
0.067624 0.074375 -0.041247
0.180948 0.707905 0.103799
-0.311763 0.464424 -0.033330
0.054484 -0.114189 -0.173408
0.064512 0.022529 -0.194627
-0.109436 0.310511 -0.079396
0.030473 -0.614809 -0.166130
-0.020018 -0.059172 -0.111390
0.264689 0.571068 0.137818
0.306291 0.624377 0.233235
-0.188452 0.273210 -0.042706
0.180557 0.491893 0.132551
0.037052 0.143044 -0.270799
0.153292 0.471680 0.138515
0.109734 0.189938 0.033466
0.037586 -0.245812 -0.136924
0.051025 -0.206959 -0.126313
0.036703 0.216359 -0.280021
-0.075586 0.549933 0.026142
0.056544 0.023780 -0.070830
-0.063249 0.425422 -0.087736
0.162669 0.319045 0.104747
0.085044 0.177963 -0.102016
-0.062736 0.058853 -0.091891
0.116771 0.259130 -0.212558
-0.058655 0.423808 -0.098531
0.205293 0.416840 0.120582
0.019866 -0.684941 -0.166019
0.208776 0.513247 0.190908
-0.217335 0.279638 -0.053996
0.106902 0.154045 0.038875
-0.051760 0.424879 -0.084433
0.133240 0.200050 0.047136
-0.040992 0.043481 -0.105053
0.180630 0.686581 0.046817
0.134063 0.446320 -0.194800
0.059478 0.816870 -0.190948
0.101881 0.753000 -0.164943
-0.074023 0.474883 -0.104905
0.052030 -0.125857 -0.157573
0.045367 -0.202771 -0.131104
0.054527 -0.031358 -0.198856
0.030142 -0.558940 -0.185280
0.148412 0.380378 0.125620
-0.146919 0.565096 -0.042315
0.432551 0.610017 0.110123
0.083835 0.145975 -0.224156
-0.056898 0.429310 -0.093113
0.023857 0.186282 -0.288153
0.195045 0.416439 0.116753
0.186867 0.540430 0.209413
-0.093169 0.377689 -0.023418
-0.073501 0.212647 -0.133336
-0.121692 0.268516 -0.084618
0.039312 -0.469534 -0.185707
0.203439 0.577303 0.325710
-0.109986 0.311994 -0.074952
0.160408 0.509167 0.278317
0.186760 0.499196 -0.175392
0.059183 0.357068 -0.091783
-0.105395 0.255926 -0.063813
0.312964 0.713495 0.397180
0.128480 0.291802 -0.203360
-0.100472 0.293662 -0.079038
-0.173048 0.230861 -0.076726
0.056529 0.755113 -0.063475
0.167064 0.445387 0.106887
0.037273 -0.705736 -0.180860
-0.127863 0.334386 -0.081753
0.061165 0.031420 -0.064490
0.025221 -0.494713 -0.173167
-0.058706 0.506980 -0.095463
-0.067947 0.144735 -0.090066
-0.078662 0.454514 0.025696
0.070169 0.511501 -0.109239
0.168857 0.660334 -0.226590
-0.080298 0.175597 -0.131833
-0.055851 0.308174 -0.091967
0.007053 0.240984 -0.287047
0.408956 0.621673 0.193901
-0.064481 0.256949 -0.083716
-0.071823 0.561213 -0.068099
-0.083870 0.158116 -0.122567
0.230140 0.732857 0.334850
-0.080271 0.152755 -0.101366
0.077846 0.468911 -0.103932
0.034284 -0.034724 -0.113387
0.070723 -0.044772 -0.206925
0.248201 0.603637 -0.178903
0.186470 0.916856 0.215226
0.031325 -0.661225 -0.176748
0.151679 0.305188 0.091907
0.124197 0.223276 0.055939
0.164032 0.544461 0.146512
-0.060424 0.430099 -0.106928
0.112199 0.510252 -0.196460
0.140837 0.541833 -0.183048
0.048192 -0.184772 -0.142351
0.052454 -0.170669 -0.130965
0.085252 0.089522 -0.019034
-0.242392 0.358325 -0.042712
0.040534 -0.317941 -0.143625
0.072443 0.733390 0.388738
0.070116 0.324173 -0.093522
-0.066359 0.370058 -0.092790
0.032309 -0.135509 -0.111571
0.019493 -0.833295 -0.198484
-0.091492 0.324995 -0.030028
0.305849 0.671267 0.000452
-0.162579 0.502593 -0.044128
0.021153 -0.890274 -0.193985
-0.064935 0.401086 -0.089789
0.129392 0.463892 -0.207582
-0.151659 0.554067 -0.058984
-0.199455 0.282034 -0.057457
0.039321 -0.630746 -0.170413
-0.097957 0.334551 -0.033875
0.141318 0.641048 -0.155143
0.372154 0.737651 0.268872
0.092275 0.205702 -0.204134
-0.283478 0.418445 -0.033019
-0.011008 -0.058853 -0.125805
-0.028045 -0.003797 -0.083105
0.084406 0.855201 -0.196533
-0.085624 0.130453 -0.080483
-0.032743 0.551753 -0.116962
-0.205507 0.290635 -0.071379
0.077408 0.068205 -0.214501
0.140420 0.520162 -0.204452
-0.014794 0.861917 -0.147771
0.044389 -0.509429 -0.183579
0.424622 0.671188 0.243466
-0.037498 -0.021141 -0.103534
0.160121 0.270856 0.093745
0.089612 0.081226 -0.033960
0.087116 0.554802 -0.107426
0.178356 0.511441 -0.143314
0.253993 0.612329 0.301947
0.096562 0.150840 -0.201053
0.062635 0.481387 0.057319
-0.063354 0.552006 -0.107049
0.161997 0.679123 0.361931
0.076845 0.742843 -0.215850
-0.132567 0.444747 -0.049464
0.115133 0.325475 -0.199594
0.035784 -0.113559 -0.123234
-0.081581 0.194379 -0.131949
0.136818 0.672628 0.280844
-0.247657 0.348778 -0.039894
0.204489 0.568534 0.131145
0.019785 -0.454477 -0.168739
0.061139 0.009067 -0.063459
-0.083044 0.346715 -0.033794
0.043380 -0.208382 -0.147754
0.046383 0.012350 -0.080750
0.054921 0.040885 -0.067971
0.034852 -0.760259 -0.193394
0.511615 0.886265 -0.265044
0.121524 0.165924 0.025419
-0.011413 -0.034178 -0.106532
0.118232 0.197948 0.053954
0.123800 0.550028 -0.195080
0.086062 0.024323 -0.206527
0.067393 0.514698 -0.098313
-0.157655 0.482337 -0.046233
0.308781 0.787742 -0.315523
-0.078653 0.186544 -0.083820
-0.139797 0.527283 -0.051546
0.235574 0.625278 -0.047128
0.218960 0.584733 0.107398
0.253111 0.553414 0.135830
0.011703 -0.971932 -0.191893
0.014533 0.231484 -0.289514
0.320871 0.915021 -0.159949
-0.047491 0.510961 -0.098689
0.027755 -0.959699 -0.198458
0.054949 0.056362 -0.034349
-0.072302 0.529212 -0.116959
-0.146051 0.442875 -0.052358
0.127889 0.648694 0.057397
0.017886 -0.008491 -0.119968
0.097085 0.239275 -0.202588
0.194106 0.481870 0.158174
0.055658 -0.073467 -0.189548
0.133709 0.512352 -0.191399
0.054307 0.014075 -0.115356
0.257700 0.697767 0.065504
0.114585 0.217933 0.061042
0.098395 0.087694 -0.201975
0.024817 0.142402 -0.257581
0.295213 0.636258 0.088124
-0.270200 0.433133 -0.039736
0.018242 -0.084372 -0.118013
0.013126 -0.769595 -0.184052
0.003365 -0.079426 -0.113295
0.056019 -0.348461 -0.144278
0.021022 -0.722830 -0.175916
0.049685 0.695137 -0.159755
0.192528 0.784426 0.020727
-0.113294 0.325152 -0.060933
-0.084387 0.454897 0.018102
0.355209 0.828779 0.028264
0.081997 0.103162 -0.012545
-0.136179 0.351590 -0.068902
0.140766 0.259261 0.067986
-0.007926 -0.080236 -0.115056
0.072338 -0.131156 -0.165909
0.085321 0.094859 -0.199403
0.077079 0.194703 -0.106535
-0.093865 0.334097 -0.026311
0.253624 0.546019 0.140944
0.032843 -0.045768 -0.101483
0.129202 0.221336 0.047455
0.072656 0.182621 -0.112625
0.064306 0.065366 -0.016344
0.061948 -0.041257 -0.186754
0.053287 0.086633 -0.051750
0.040464 0.089672 -0.094639
-0.051788 0.515377 -0.116019
0.172346 0.533147 0.130844
0.003476 -0.842609 -0.197354
0.052113 -0.104717 -0.184113
0.146243 0.474508 -0.017983
-0.082832 0.437074 0.005091
-0.058416 0.049537 -0.084592
0.055402 0.076200 -0.227909
0.045962 0.125157 -0.104451
0.025398 -0.447230 -0.163085
0.335157 0.785393 -0.009387
0.194521 0.507970 0.177318
0.089746 0.672200 0.186797
-0.074382 0.552093 0.040802
0.126510 0.485978 -0.185030
0.056220 0.376556 -0.106980
0.024585 -0.332358 -0.151510
0.131577 0.527415 -0.205932
0.221869 0.741135 0.216087
-0.055132 0.453905 -0.092027
0.148009 0.845098 0.104234
0.030604 0.149904 -0.092798
0.047382 -0.207484 -0.147889
-0.096562 0.301134 -0.059661
0.106782 1.023743 -0.131214
0.046201 -0.359321 -0.138958
0.019327 -0.550422 -0.170600
0.036630 0.050600 -0.104451
-0.113873 0.294387 -0.083524
0.067759 0.514708 -0.103739
0.014203 -0.802664 -0.171348
0.193201 0.504439 0.187441
-0.078878 0.181845 -0.135703
0.020821 -0.943086 -0.197178
0.067986 0.457617 -0.094388
0.048237 -0.117827 -0.163765
0.007782 -0.737185 -0.177388
0.030307 -0.544961 -0.179854
-0.038761 0.021916 -0.102136
-0.073565 0.521903 -0.100125
0.059082 -0.252552 -0.150283
0.113898 0.413819 -0.203061
0.042691 -0.040488 -0.115386
0.100215 0.190152 0.041688
0.040279 -0.177256 -0.126173
0.078048 0.656720 0.189004
-0.095841 0.331970 -0.027942
-0.084609 0.345422 -0.016845
0.139577 0.448026 -0.208331
0.033454 -0.303923 -0.139638
0.059454 0.330239 -0.109470
-0.098534 0.213503 -0.074662
0.206130 0.650816 -0.217700
-0.140817 0.231186 -0.059523
0.034882 -0.795516 -0.203392
0.188476 0.535447 -0.141809
0.113885 0.236518 0.067390
0.255284 0.518927 0.127004
-0.087459 0.132943 -0.086149
0.262330 0.687480 0.062129
-0.055866 0.361943 -0.072490
-0.085166 0.486996 0.033748
0.047195 -0.433485 -0.150480
0.026837 -0.129039 -0.136988
0.062350 0.062649 -0.201626
0.082578 0.063973 -0.023345
0.097019 0.150601 0.017640
-0.260882 0.375194 -0.057551
0.004081 -0.080300 -0.105777
0.081184 0.583788 -0.105038
0.361336 0.712358 0.147043
0.024516 0.211593 -0.269019
0.041355 -0.657165 -0.166457
0.168183 0.420876 0.111164
0.038468 -0.196079 -0.120316
0.054162 -0.002389 -0.105726
0.392940 0.478029 0.478436
0.134751 0.236178 0.074807
-0.085848 0.214609 -0.078931
0.190743 0.579515 0.198227
0.050895 0.119391 -0.244156
-0.091872 0.391457 -0.004616
-0.149508 0.525553 -0.047563
-0.069277 0.494890 0.074888
-0.150304 0.512502 -0.048258
0.248961 0.494520 0.141045
-0.271557 0.403741 -0.042323
0.342117 0.839405 0.125695
0.130107 0.490546 -0.201591
0.031088 -0.682897 -0.174801
0.047177 -0.403109 -0.149768
0.204870 0.539245 -0.135044
0.067794 0.324925 -0.100695
0.116926 0.395705 -0.202454
-0.111047 0.284833 -0.064419
-0.006451 -0.050124 -0.112221
-0.047344 -0.021000 -0.108237
0.192313 0.823042 -0.225551
0.185560 0.479385 0.166705
0.112635 0.561568 -0.118909
-0.075083 0.234359 -0.170971
0.391936 0.766508 -0.196236
0.143865 0.568453 0.153027
0.268605 0.724369 -0.194132
0.312763 0.606761 0.284861
-0.009831 -0.061390 -0.111678
0.057937 0.463900 -0.094146
0.148645 0.238894 0.089121
0.038234 -0.794409 -0.192282
0.101388 0.104774 0.001956
0.137266 0.579769 -0.193771
0.107726 0.360428 -0.185038
-0.090651 0.439918 0.020256
0.154541 0.436917 0.116290
0.207187 0.594548 0.237013
0.161131 0.674970 -0.129958
0.111839 0.202170 0.049499
0.007014 -0.080989 -0.109716
-0.129413 0.361582 -0.050859
0.024308 0.027789 -0.125418
0.119277 0.464337 -0.186158
-0.094018 0.300391 -0.054014
0.172667 0.570228 0.145787
0.030113 -0.787305 -0.187546
0.033388 0.764284 -0.184332
0.057036 0.411873 -0.104498
0.045274 -0.159201 -0.145332
-0.063896 0.336083 -0.085089
0.087950 0.116992 0.005789
0.039710 0.049399 -0.118198
0.051298 -0.205458 -0.150668
0.062589 0.388922 -0.091121
0.061250 -0.066012 -0.198393
0.130129 0.838475 -0.166188
0.369617 0.660081 0.163003
0.081543 -0.017640 -0.211385
0.054743 0.055279 -0.045300
0.120119 0.396937 0.481106
-0.186829 0.257032 -0.057459
0.033802 -0.917585 -0.216801
0.231672 1.006834 -0.077908
0.130163 0.489122 -0.212872
0.136607 0.203577 0.065087
0.066775 0.005727 -0.075314
-0.307525 0.469445 -0.043644
0.148073 0.233517 0.060843
0.130509 0.260336 0.060829
0.033906 -0.433965 -0.169707
-0.149737 0.216012 -0.073918
-0.053970 0.507604 -0.106256
-0.225883 0.307503 -0.064538
0.159858 0.335024 0.108898
0.021567 -0.728780 -0.175134
0.116328 0.216983 -0.194849
0.073014 0.571173 -0.107165
-0.056550 0.307862 -0.082740
-0.140800 0.205812 -0.084456
-0.273131 0.398548 -0.043060
0.173709 0.497573 0.129043
0.257869 0.790578 -0.035310
0.075117 -0.072722 -0.183075
0.214362 0.562775 -0.143577
0.099455 0.676446 -0.140092
0.100194 0.326182 -0.197604
-0.221748 0.329017 -0.041047
0.177863 0.401699 0.127978
0.063907 -0.129395 -0.176970
0.056146 -0.332484 -0.141317
0.241250 0.513758 0.141783
0.059218 0.376130 -0.094902
0.038113 0.184017 -0.109652
0.036083 -0.684132 -0.173248
-0.156283 0.544416 -0.047402
0.090396 0.056271 -0.213953
-0.080855 0.214288 -0.095407
0.242721 0.770641 0.111539
0.018400 -0.670334 -0.187927
-0.211202 0.301487 -0.064296
0.149704 0.407972 0.119999
0.161161 0.389060 0.105399
0.084891 0.435806 -0.092731
-0.087050 0.342715 -0.022699
0.101544 0.271306 -0.198506
0.211045 0.534523 -0.156993
0.103209 0.703863 -0.133475
0.042724 -0.382517 -0.144392
-0.096695 0.153746 -0.085104
0.244318 0.499290 0.128682
0.243286 0.970367 -0.009471
0.137817 0.485024 -0.183057
0.152513 0.477109 -0.172851
0.274224 0.586136 0.163476
0.152542 0.762836 -0.158899
0.190726 0.558550 0.145023
-0.290850 0.439907 -0.025032
-0.054392 0.019539 -0.088051
-0.291716 0.437625 -0.037218
0.111250 0.219958 -0.198618
0.082608 0.675768 -0.249011
0.240125 0.595990 -0.137161
0.029083 -0.460122 -0.180280
-0.073836 0.338168 -0.015531
0.128303 0.465048 -0.197660
0.234683 0.695136 -0.049645
0.054093 0.016201 -0.070820
0.039582 0.176901 -0.260803
-0.086602 0.349437 -0.013352
0.076957 0.066133 -0.203832
0.092821 0.166309 0.036000
-0.092265 0.120770 -0.098429
-0.083964 0.113587 -0.085583
0.195032 0.850101 0.308590
0.079627 -0.020843 -0.182281
0.086240 0.573948 -0.105479
-0.077334 0.187231 -0.088993
0.133084 0.655136 0.051247
-0.154344 0.492430 -0.058735
-0.072963 0.131851 -0.119982
-0.146506 0.657043 -0.088540
0.075984 0.466529 -0.089503
0.145565 0.382076 0.116867
0.036873 0.575432 0.146903
0.028305 -0.596723 -0.188148
-0.148060 0.438771 -0.064349
0.224507 0.570613 -0.135527
0.065737 0.097825 -0.057958
0.151338 0.480412 -0.176568
0.030709 0.122880 -0.261615
-0.130659 0.317629 -0.062867
0.053131 -0.056520 -0.187864
0.019862 -0.966197 -0.198393
0.035406 0.030061 -0.098529
0.106276 0.209637 -0.218722
-0.127417 0.203503 -0.083314
-0.092011 0.356127 -0.029269
-0.129753 0.378977 -0.057804
0.076634 0.090433 -0.204856
0.130649 0.527523 -0.191375
0.028623 -0.782501 -0.192988
0.074775 0.058332 -0.037010
0.130715 0.282957 0.094821
0.041656 -0.183757 -0.108415
0.140167 0.524309 -0.208582
0.164083 0.619180 0.082710
0.032565 -0.347909 -0.148002
0.019941 -0.844396 -0.198579
0.345628 0.507087 0.261349
0.009460 0.183493 -0.279836
0.152006 0.357720 0.085100
0.012127 -0.129380 -0.130620
-0.077311 0.087817 -0.074004
0.051613 -0.372071 -0.147497
0.024788 -0.702061 -0.170534
0.252110 0.768981 -0.265280
0.252823 0.542694 0.146046
-0.060811 0.257576 -0.101677
0.039396 0.019750 -0.108151
0.117932 0.485430 -0.210126
0.051251 0.439631 -0.097095
0.160500 0.736049 0.164177
0.202890 0.496608 0.181359
0.021342 -0.849424 -0.189779
0.115535 0.840139 0.006108
0.011297 -0.908608 -0.188892
0.007618 -0.767564 -0.187270
0.233060 0.633309 0.011298
0.111634 0.395558 -0.207203
0.200690 0.590964 0.119019
0.178960 0.569559 0.145411
0.061034 -0.066250 -0.176324
0.037979 -0.534612 -0.160209
0.037060 -0.375623 -0.162494
0.147424 0.352659 0.110837
-0.078304 0.470011 0.028765
0.026997 0.200451 -0.266398
0.060868 -0.113629 -0.171119
0.024572 -0.723223 -0.176050
0.044352 -0.102202 -0.162112
-0.168601 0.231212 -0.056807
-0.116286 0.285002 -0.088092
0.026515 -0.610536 -0.190833
-0.124786 0.659539 -0.007420
0.028346 0.032294 -0.126314
-0.297310 0.458973 -0.025667
0.116305 0.575903 -0.150661
0.050487 -0.322783 -0.159045
-0.080679 0.127647 -0.107023
-0.054086 0.310950 -0.089877
0.061478 0.299393 -0.093880
-0.319640 0.466281 -0.032833
0.197025 0.531964 -0.144829
0.035909 0.162987 -0.276426
0.202572 0.725190 -0.202364
-0.106825 0.264130 -0.073870
-0.073446 0.403779 -0.083404
0.033952 -0.565236 -0.171308
-0.257451 0.385625 -0.045477
0.046224 0.133882 -0.272651
-0.227346 0.318977 -0.043674
-0.050946 0.053093 -0.095902
0.082664 -0.028673 -0.206061
-0.031117 -0.013023 -0.101199
0.114173 0.913924 -0.039980
0.232605 0.552814 0.202717
0.193152 0.499777 0.188905
-0.099922 0.193322 -0.077378
-0.065911 0.076435 -0.076726
0.034007 -0.768016 -0.180785
0.031554 -0.075225 -0.136024
-0.288748 0.422637 -0.035391
0.122295 0.495309 -0.193067
-0.080057 0.290162 -0.045683
0.072690 0.794509 -0.389560
0.118685 0.362589 -0.202707
-0.060492 0.523651 -0.104443
0.063409 -0.082743 -0.177933
0.050005 -0.606368 -0.174323
-0.065490 0.133684 -0.105070
0.175671 0.508856 -0.176990
0.207933 0.581816 0.132295
0.033019 -0.391628 -0.175145
-0.077788 0.181428 -0.150446
-0.115173 0.326002 -0.055897
0.100869 0.537819 -0.115272
-0.083374 0.208443 -0.081581
0.278418 0.736445 0.218311
0.044409 -0.416122 -0.178322
0.168952 0.514676 -0.154965
0.068231 0.008329 -0.208717
0.138370 0.664148 -0.335342
0.047216 -0.520964 -0.179628
0.182595 0.541681 0.150242
0.026540 -0.839696 -0.197679
0.037738 0.108387 -0.093710
0.085439 0.033323 -0.217264
-0.068701 0.478896 -0.097318
0.026963 -0.525504 -0.182458
0.037014 -0.213475 -0.158388
0.056481 -0.148343 -0.130838
0.298618 0.615146 0.108147
0.166352 0.961132 -0.234377
0.240326 0.725831 -0.238792
0.184294 0.568094 0.142516
-0.156539 0.216943 -0.060356
0.160784 0.349372 0.102433
-0.154522 0.574551 -0.053856
0.098890 0.557220 -0.107887
0.118418 0.593135 -0.139738
0.030083 -0.555522 -0.177195
0.009736 -0.059754 -0.108190
0.129532 0.475256 -0.202405
-0.048373 0.731533 -0.115361
0.209014 0.529446 -0.156658
0.072398 -0.017180 -0.196946
0.110252 0.797589 -0.171210
-0.006814 -0.065729 -0.114518
-0.213849 0.322552 -0.063287
0.184386 0.524170 -0.151183
0.361562 0.631629 -0.228189
-0.074304 0.545711 -0.113057
0.027002 -0.024316 -0.110157
-0.179031 0.272353 -0.058127
-0.145346 0.429641 -0.051268
0.115524 0.157276 0.026689
0.381908 0.784539 -0.251676
0.205562 0.578779 0.225478
-0.146851 0.528383 -0.052528
-0.125689 0.361801 -0.066955
0.209772 0.583711 0.131124
0.100120 0.286407 -0.222043
0.031313 -0.110354 -0.139303
-0.057356 0.529111 0.040982
-0.077122 0.539305 -0.120115
-0.077771 0.467049 0.015232
0.140357 0.371364 0.117359
0.057199 -0.051402 -0.201352
0.180768 0.541788 0.314189
0.055100 -0.363298 -0.168120
0.036887 -0.628056 -0.152643
0.005567 0.960133 -0.028356
-0.099550 0.292212 -0.072875
0.019590 -0.834737 -0.215494
0.214216 0.417640 0.114283
0.128386 0.617938 0.213483
0.054515 -0.524994 -0.155395
0.039881 -0.290691 -0.160344
-0.080936 0.234289 -0.150780
0.107453 0.093252 -0.211724
0.071913 0.468746 -0.104839
0.150084 0.314117 0.084147
0.261596 0.706784 -0.312114
-0.040452 0.006190 -0.100567
0.169019 0.558940 -0.165226
0.046430 -0.482607 -0.168489
-0.088534 0.119088 -0.101102
0.045455 0.014912 -0.073333
0.027978 -0.699666 -0.186050
0.036370 0.174182 -0.252631
0.121286 0.187139 0.058828
-0.080469 0.522393 0.045962
0.033404 -0.878400 -0.212414
0.116886 0.175947 -0.203620
0.084428 0.092698 -0.018662
0.165307 0.457367 0.128944
-0.096573 0.485504 0.018338
0.201649 0.764624 -0.311956
-0.235047 0.320668 -0.038140
0.218665 0.583826 0.238819
0.187394 0.525589 0.207861
-0.297740 0.440708 -0.038381
0.073122 0.645555 0.059403
-0.024573 -0.032714 -0.117793
0.130031 0.460358 -0.175750
0.030487 -0.012220 -0.112157
0.171304 0.482647 0.152004
0.114255 0.215912 -0.202278
0.041341 -0.629817 -0.156892
-0.259518 0.369002 -0.046499
0.040905 -0.241191 -0.136343
-0.077834 0.467949 0.010663
0.093578 0.787239 -0.150553
0.022789 -0.689164 -0.196938
-0.074081 0.337983 -0.075754
0.265607 0.543695 0.153661
0.066622 0.000262 -0.204441
-0.136346 0.213689 -0.090902
0.018186 -0.844406 -0.180086
0.011022 -0.058355 -0.113187
-0.086520 0.187465 -0.060942
-0.120885 0.339050 -0.077936
0.217322 0.769629 -0.179157
0.071400 0.139931 -0.209367
0.028605 -0.742216 -0.187113
0.209003 0.880612 0.099421
0.243461 0.763887 -0.232370
0.226373 0.772390 0.094748
-0.152049 0.476738 -0.038592
-0.296566 0.442963 -0.041154
0.040243 -0.000896 -0.073694
0.078480 0.547117 -0.253251
-0.058383 0.026927 -0.097065
0.026134 -0.758258 -0.177751
0.019104 -0.751952 -0.186662
0.120495 0.272870 -0.206176
0.041393 -0.811720 -0.187476
-0.060867 0.043181 -0.082440
0.068039 0.558804 -0.099497
0.397094 0.562287 -0.334257
0.106406 0.197533 -0.199045
0.113915 0.165268 -0.211470
0.011283 -0.530595 -0.166422
-0.073279 0.419922 0.005475
0.163464 0.560058 0.160720
0.117540 0.209348 0.058906
-0.153985 0.804588 -0.095899
0.256693 0.646173 -0.233031
-0.081420 0.437706 0.022632
0.057476 -0.091979 -0.183228
0.020605 0.712139 -0.176408
0.066439 0.168418 -0.082006
-0.234392 0.345526 -0.060262
0.026641 -0.150849 -0.132634
0.112684 0.354665 -0.214649
0.009915 -0.856704 -0.205175
0.036756 -0.155409 -0.132769
0.104107 0.548247 -0.127998
0.028698 -0.997962 -0.186578
0.100317 1.004215 -0.094470
0.059668 -0.250988 -0.129161
-0.077661 0.555614 -0.110329
-0.134204 0.474601 -0.056777
-0.242935 0.346385 -0.052871
0.169496 0.488912 -0.162151
0.022910 -0.659549 -0.179383
0.164621 0.426006 0.133099
0.166050 0.934495 -0.027488
0.404950 0.489965 0.110971
0.177026 0.464313 0.171202
0.049999 0.153513 -0.115390
0.028017 -0.120501 -0.122378
-0.059615 0.040565 -0.084148
0.097767 0.740432 0.230965
0.271457 0.581756 0.148534
-0.070337 0.124769 -0.098065
0.011227 -0.790713 -0.184582
0.240788 0.795925 0.010238
0.082090 0.123570 0.000833
0.074373 0.020724 -0.215324
-0.091790 0.482600 0.013015
0.150248 0.333623 0.100039
0.186774 0.531628 -0.146437
0.042266 0.088345 -0.107477
0.079223 0.121753 -0.214312
-0.072374 0.425418 -0.004079
0.165286 0.485019 0.126930
-0.163886 0.522324 -0.047940
0.015742 0.252408 -0.288996
0.131060 0.342351 0.093996
0.171454 0.248574 0.092640
0.084108 0.586422 -0.036624
-0.056350 0.450585 -0.113337
0.384536 0.711321 0.218559
0.165008 0.480263 -0.149165
-0.081552 0.169337 -0.116573
0.027314 0.216719 -0.279209
0.025040 -0.577021 -0.189711
0.022449 -0.363516 -0.144406
0.173817 0.556168 -0.165327
-0.027808 0.694794 -0.204087
0.153786 0.849715 -0.239105
0.044691 -0.171602 -0.154785
-0.053538 0.552275 -0.096972
0.052137 0.149418 -0.105913
0.075905 -0.047427 -0.184918
0.030212 -0.854258 -0.207045
-0.261638 0.399363 -0.036925
-0.071180 0.156578 -0.141642
0.045629 -0.047185 -0.122070
0.087834 0.205222 -0.212026
0.214939 0.439679 0.112960
0.037565 -0.332277 -0.149288
-0.028859 0.606509 -0.300093
0.029160 -0.569072 -0.183431
0.204601 0.550107 -0.143270
0.038119 -0.244087 -0.128455
0.028749 -0.815813 -0.195611
-0.229948 0.328288 -0.042245
0.235482 0.476820 0.146450
0.239946 0.504371 0.128566
0.045150 0.353697 -0.090031
0.032864 -0.077321 -0.124798
-0.063688 0.490953 0.035608
0.369322 0.667449 0.371457
0.224761 0.503333 -0.191387
0.144187 0.426156 0.125388
0.042958 0.050729 -0.101883
0.064945 0.323886 -0.106395
0.107091 0.655786 0.130117
0.129056 0.269418 0.067812
-0.149982 0.529661 -0.045309
0.071848 0.033412 -0.209382
-0.094432 0.195520 -0.064075
0.053722 -0.119832 -0.171832
0.085677 0.063596 -0.022174
0.293480 0.688628 0.541343
-0.053965 0.032666 -0.086309
-0.080296 0.161583 -0.117743
0.056120 -0.124176 -0.177654
0.047067 -0.449336 -0.166204
-0.068932 0.048189 -0.106172
0.074455 0.317635 -0.103091
0.130487 0.289854 0.074504
0.042405 0.323139 -0.094679
0.019654 0.221060 -0.281708
0.042980 0.713838 -0.071090
-0.042754 0.304656 -0.086440
0.058031 0.954380 -0.191597
0.058162 -0.068588 -0.184130
0.065250 0.454428 -0.097336
0.118924 0.358735 -0.201977
-0.052398 0.514928 -0.104483
0.100720 0.345737 -0.213922
0.138107 0.226296 0.058790
0.042796 0.077007 -0.114978
0.160887 0.478821 0.141877
0.189453 0.655903 -0.082724
0.114292 0.439363 -0.200952
0.139429 0.589849 -0.146904
-0.072958 0.795880 0.302581
-0.121110 0.341778 -0.053434
0.130037 0.720096 -0.229159
-0.062679 0.055606 -0.099985
0.034285 0.229976 -0.275506
0.103495 0.817460 -0.221605
0.031770 -0.570315 -0.148654
0.281186 0.752512 0.274368
0.058760 0.074348 -0.226557
0.041630 -0.358831 -0.157474
0.045551 -0.515870 -0.182068
0.039101 0.139299 -0.260943
-0.144579 0.436603 -0.045460
-0.293007 0.424860 -0.039220
-0.082970 0.377491 0.002110
0.098846 0.741456 -0.314361
-0.106566 0.221792 -0.082839
0.057742 0.326451 -0.100538
0.030009 -0.614130 -0.161937
0.047046 -0.445407 -0.156241
0.123813 0.700399 -0.008393
-0.038320 0.013262 -0.101313
-0.027192 0.001366 -0.106150
-0.131553 0.384534 -0.069218
-0.085924 0.275134 -0.085161
0.121636 0.451878 -0.191938
0.016993 -0.912210 -0.187731
0.092494 1.036039 -0.204399
0.030368 -0.001953 -0.097189
0.019064 -0.728480 -0.170519
0.201840 0.420503 0.115961
0.422043 0.795720 0.152240
0.054668 -0.020418 -0.115472
-0.065783 0.509496 -0.117114
0.142213 0.228874 0.082736
0.042117 -0.867826 -0.201778
-0.140114 0.462565 -0.072072
0.129582 0.399748 0.274933
-0.077141 0.152705 -0.074516
-0.113380 0.243217 -0.079174
0.115414 0.260388 -0.199759
0.164982 0.536973 -0.159060
0.035332 -0.456900 -0.157314
-0.138989 0.411740 -0.072457
0.093549 0.675772 -0.109134
0.194623 0.523985 0.197776
0.304028 0.466638 -0.006864
0.029263 0.112440 -0.097860
-0.148077 0.228102 -0.057210
0.077551 0.090301 -0.198726
-0.289461 0.427227 -0.045032
0.039420 -0.276497 -0.138265
0.090689 0.061725 -0.039146
-0.210035 0.291215 -0.054784
0.095981 0.194012 -0.199953
0.019109 -0.180170 -0.132441
0.144425 0.270880 0.091743
-0.135231 0.447678 -0.051479
0.131644 0.729885 -0.043719
0.146129 0.523360 -0.206999
0.017496 -0.935816 -0.191376
0.036360 -0.365395 -0.153041
-0.105917 0.300594 -0.082407
0.028509 -0.840297 -0.205076
0.234330 0.594441 0.065327
-0.086315 0.350727 -0.021128
0.179716 0.594227 0.104617
-0.073278 0.547854 0.032398
0.048399 -0.101627 -0.186522
0.118777 0.362429 -0.195245
-0.074844 0.248325 -0.067763
-0.106187 0.199224 -0.089212
0.080761 0.002888 -0.197404
0.044610 -0.337683 -0.147858
-0.042836 -0.014648 -0.099024
-0.016043 -0.017567 -0.107570
0.038076 -0.818891 -0.179942
0.093651 0.244517 -0.200209
-0.057783 0.431649 -0.103780
0.018638 -0.145784 -0.129949
0.046664 -0.457771 -0.144807
-0.067299 0.221929 -0.074770
0.086107 -0.017451 -0.194816
0.172826 0.526192 0.137390
-0.071652 0.098208 -0.091563
-0.285129 0.429423 -0.045475
0.023948 -0.481065 -0.142254
0.089194 0.134411 0.001836
0.098357 0.182662 -0.211981
0.113428 0.422414 -0.187086
0.062271 0.022328 -0.050085
0.024544 0.064659 -0.109473
0.039470 -0.162084 -0.134371
0.041223 -0.482729 -0.172651
0.035729 -0.402186 -0.158208
0.222787 0.813664 0.340636
0.232710 0.601241 0.090973
-0.087244 0.202542 -0.143924
0.024809 0.198849 -0.261585
0.274320 0.587341 0.163717
0.103623 0.911725 -0.376392
0.026017 0.146909 -0.269521
0.208004 0.789268 0.199724
0.158962 0.470757 -0.178234
-0.116812 0.239596 -0.073331
0.166323 0.769770 0.074909
0.194284 0.457997 0.039957
-0.063793 0.173290 -0.124648
-0.070398 0.529476 -0.102157
0.072781 -0.030329 -0.200059
0.033114 -0.397905 -0.177473
0.049279 0.101245 -0.049662
-0.262438 0.376243 -0.037600
-0.088270 0.453600 0.013012
0.005275 -0.072022 -0.122629
0.406627 0.703625 0.075987
0.058838 0.369488 -0.090405
-0.056276 0.313444 -0.083126
-0.065002 0.450173 0.017982
0.040813 -0.247393 -0.145279
0.065885 0.063402 -0.047338
0.090530 0.097349 -0.004648
0.117177 0.470876 -0.207566
0.163840 0.746454 -0.249022
-0.312899 0.459590 -0.041377
0.110571 0.542092 -0.360815
0.143217 0.316561 0.085533
0.017908 -0.036113 -0.128212
0.084755 0.586761 -0.115988
-0.000387 0.698154 0.012718
0.139745 0.319601 0.083166
0.017443 -0.840269 -0.184014
-0.054093 0.071460 -0.107486
0.164885 0.450710 0.134945
-0.098796 0.331798 -0.024336
0.049052 -0.336529 -0.159700
-0.190995 0.248212 -0.064252
0.047034 -0.432419 -0.167013
0.256239 0.889632 -0.124878
0.096210 0.252968 -0.205099
0.108024 0.408546 -0.195634
0.023455 -0.312106 -0.145318
-0.133762 0.221884 -0.054162
0.129130 0.368971 -0.196313
0.200634 0.556049 0.204995
-0.128489 0.352729 -0.065711
-0.091083 0.118611 -0.085660
-0.200055 0.629167 -0.216115
0.033529 -0.066616 -0.124662
-0.051672 0.034306 -0.097413
0.356316 0.691905 0.176560
-0.045732 0.536202 -0.116774
0.130640 0.439079 -0.205638
0.031869 -0.478808 -0.166422
-0.063911 0.304615 -0.070609
0.176806 0.565040 0.161439
0.159599 0.480309 0.140464
0.035457 -0.472970 -0.148732
0.270530 0.530271 0.142013
0.105736 0.306791 -0.189583
0.108999 0.665752 0.348767
-0.033852 0.023516 -0.097794
0.130723 0.539610 -0.187322
0.055836 0.079090 -0.226786
0.344895 0.567583 0.075009
0.141195 0.207648 0.049219
0.159584 0.537205 0.148713
0.017904 -0.538489 -0.149159
0.081535 0.596499 -0.088079
-0.068111 0.036487 -0.097968
0.033421 -0.608087 -0.162192
0.042826 -0.555773 -0.178107
0.107745 0.434117 -0.202538
0.106983 0.268757 -0.211802
0.023558 -0.720855 -0.168531
0.197377 0.784752 -0.360767
0.119888 0.411102 -0.206287
0.047450 0.296162 -0.093852
0.052330 0.203937 -0.111661
-0.123028 0.372457 -0.078037
0.017170 -0.819985 -0.196319
0.138159 0.224971 0.059502
0.017262 -0.791986 -0.188354
-0.023232 0.014938 -0.100690
0.051009 -0.382650 -0.174775
0.042627 -0.150984 -0.145181
0.225115 0.487062 0.133991
0.170558 0.996320 -0.108011
0.123870 0.374024 -0.211447
0.106119 0.665146 0.085550
0.082662 0.212998 -0.205902
0.035232 0.006000 -0.095441
-0.171503 0.254992 -0.056828
0.035882 -0.183096 -0.149732
0.018658 -0.959426 -0.186315
0.136463 0.518642 -0.180404
-0.258705 0.358141 -0.061184
-0.082492 0.507469 0.015524
0.025272 0.165039 -0.262105
0.037055 -0.589235 -0.175885
0.081799 -0.021062 -0.198715
0.036788 -0.373330 -0.168000
0.218040 0.572934 0.240241
0.060646 0.039991 -0.053767
0.042861 0.726001 -0.330410
0.176032 0.580357 0.141149
0.036433 -0.505354 -0.170906
0.058512 -0.203672 -0.129113
0.080580 0.591501 -0.111373
0.061833 0.313052 -0.093779
0.167173 0.360271 0.101937
0.009773 -0.793337 -0.197438
0.020473 -0.730254 -0.188127
0.012522 0.212795 -0.270059
-0.090121 0.242915 -0.159610
0.091542 0.128420 -0.208148
0.052051 0.239450 -0.092889
0.071197 0.096533 -0.199728
0.228326 0.595471 -0.129123
0.168246 0.485302 -0.165575
0.132520 0.249783 0.077213
0.047568 0.055856 -0.104613
0.013807 -0.710170 -0.179808
0.230496 0.591965 0.228527
0.097348 0.113265 0.018236
0.012969 -0.959415 -0.207949
0.041692 0.103621 -0.107249
0.050369 0.007149 -0.089469
0.026215 -0.707455 -0.192423
0.309645 0.597142 0.077099
0.054980 0.162133 -0.105237
0.160948 0.507293 0.135297
-0.077873 0.354499 -0.090046
0.153448 0.393554 0.111544
-0.116197 0.317840 -0.079054
-0.059616 0.376764 -0.081835
0.024204 0.216985 -0.262186
0.177523 0.553279 0.145071
0.187504 0.709526 -0.164346
0.064184 0.191187 -0.110013
0.033587 0.011880 -0.074993
-0.111621 0.271632 -0.049537
-0.050696 0.101865 -0.092861
-0.084376 0.149390 -0.129506
-0.192005 0.254869 -0.066037
0.186481 0.546059 0.154923
-0.052842 0.299940 -0.085712
0.031733 -0.683645 -0.172048
0.074516 0.017176 -0.063084
0.031750 -0.555979 -0.142682
0.121074 0.610080 -0.144970
0.205538 0.439290 0.125461
0.093403 0.126613 0.006520
0.065427 0.013193 -0.202463
0.064945 0.515207 -0.099338
0.042170 -0.797698 -0.167371
0.061212 -0.274268 -0.148160
0.294525 0.742859 0.208936
0.071053 -0.054274 -0.183401
0.016100 -0.879224 -0.207548
0.170342 0.710173 -0.151484
0.044033 0.096482 -0.120735
-0.087846 0.486264 0.019531
-0.072248 0.071540 -0.096557
-0.055174 0.668462 -0.153163
0.202239 0.712064 0.077398
0.010736 -0.840321 -0.203768
0.030083 -0.850885 -0.210096
0.049357 -0.226845 -0.158155
-0.228822 0.312855 -0.046231
-0.288203 0.464954 -0.044992
0.042777 -0.283687 -0.146836
0.170895 0.480978 -0.162962
0.022372 -0.705550 -0.162834
-0.037812 0.011192 -0.106157
0.215412 0.687438 0.383920
0.036000 -0.870426 -0.205427
0.037390 -0.250845 -0.149980
0.097437 0.090294 -0.017894
-0.007653 -0.049106 -0.100240
0.192480 0.516894 -0.157482
0.069316 0.839499 -0.126378
0.039212 -0.079628 -0.118776
0.047696 -0.104531 -0.173822
-0.055477 0.419654 -0.087946
-0.032011 -0.019104 -0.097575
-0.072333 0.401558 0.001202
-0.104768 0.145409 -0.089662
0.049858 -0.408956 -0.162916
0.280959 0.576181 0.134878
0.045212 0.172889 -0.096412
0.166931 0.514630 0.187015
-0.072661 0.450487 0.011751
0.235572 0.595628 -0.134379
0.104757 0.176260 0.026802
0.276711 0.767040 -0.059531
0.126074 0.452015 -0.206235
0.318890 0.579328 -0.126672
-0.089929 0.183208 -0.101593
0.183315 0.668039 0.243691
-0.051076 0.341878 -0.075828
0.048771 0.022120 -0.060815
0.112170 0.279887 -0.203704
0.214363 0.555275 0.149606
-0.195294 0.286277 -0.052175
-0.089337 0.185579 -0.075596
0.131381 0.417672 -0.192965
-0.105873 0.276648 -0.078954
0.058205 0.749554 -0.203171
0.057190 0.054379 -0.222204
-0.050641 0.299046 -0.080652
-0.050466 -0.009146 -0.092964
0.185090 0.624536 0.283393
0.100913 0.302772 -0.221484
0.014273 -0.589261 -0.159897
0.223298 0.628171 -0.088885
0.024421 -0.677904 -0.147283
0.120467 0.349509 -0.189345
0.084112 0.099426 -0.220037
0.087408 0.153232 0.030996
0.039443 -0.462457 -0.139908
0.035202 -0.326421 -0.132371
0.052265 -0.482070 -0.153391
0.014800 -0.077098 -0.111024
0.047780 0.214121 -0.091764
0.244188 0.537774 0.129969
-0.072430 0.503434 0.034372
-0.130642 0.359088 -0.069634
0.025838 -0.659199 -0.180305
-0.271612 0.420200 -0.042745
0.041080 -0.354302 -0.140479
0.126042 0.744987 0.188450
0.056319 0.379971 -0.095145
0.131277 0.458284 -0.204733
0.285652 0.583198 0.145061
-0.271631 0.393679 -0.044947
0.206981 0.576083 0.109153
0.033734 -0.441585 -0.160749
-0.141610 0.441681 -0.072277
-0.113239 0.346771 -0.072694
0.133366 0.461922 -0.198814
0.178090 0.505976 0.178599
-0.087463 0.344569 -0.018838
-0.155517 0.574631 -0.040253
0.056070 -0.501577 -0.176353
0.061699 0.404784 -0.105847
0.035261 -0.008406 -0.108038
0.047651 -0.290525 -0.130681
-0.270956 0.377500 -0.032730
0.044789 0.190794 -0.090300
0.039687 -0.633434 -0.159874
0.177428 0.398818 0.099270
0.258225 0.896081 -0.019975
-0.205714 0.288257 -0.063239
0.105845 0.327460 -0.186025
0.140955 0.809086 0.279982
0.047277 -0.325679 -0.156182
-0.098530 0.313150 -0.046036
0.036306 -0.137397 -0.138643
0.020579 -0.834602 -0.176115
0.168966 0.543098 0.133733
0.024261 -0.092090 -0.128980
0.111639 0.348210 -0.202381
-0.084033 0.100679 -0.078925
0.032160 -0.041480 -0.118202
0.037425 -0.811320 -0.198139
0.181185 0.599285 -0.216187
-0.110299 0.769667 -0.063072
0.120182 0.272090 -0.201080
0.016047 0.220642 -0.270725
-0.299945 0.447905 -0.027373
-0.001942 1.133542 -0.287267
0.065859 0.138568 -0.107269
0.024401 -0.808597 -0.193447
-0.102181 0.314650 -0.038137
-0.109975 0.186534 -0.089192
0.113707 0.289954 -0.223257
0.102886 0.559843 -0.134333
0.089094 0.236239 -0.213147
0.134674 0.622411 0.113452
0.011035 -0.865324 -0.195210
0.157457 0.384591 0.094188
0.190018 0.499759 0.138051
0.057063 -0.063935 -0.185632
0.029006 -0.830262 -0.200660
0.165330 0.515342 -0.164591
0.124757 0.241709 0.057790
-0.078179 0.148647 -0.078242
0.051920 0.729764 -0.293429
-0.072398 0.134121 -0.083503
0.033775 -0.716785 -0.186185
0.111384 0.157438 0.042402
0.124269 0.682614 0.005517
0.073443 -0.045411 -0.196532
0.123532 0.599700 -0.159961
0.049870 0.131453 -0.258993
-0.116981 0.283482 -0.065514
0.226580 0.428907 0.125989
0.170365 0.598437 0.158706
0.130478 0.300011 0.082021
0.201781 0.414764 0.109431
0.285542 0.589686 0.138088
-0.085717 0.366904 -0.025873
0.055563 0.369322 -0.087067
0.068927 0.506934 -0.110670
0.043902 -0.278217 -0.144237
0.351763 0.649476 0.199559
-0.080847 0.460132 0.017595
0.041051 0.005235 -0.110119
0.053971 -0.004342 -0.091426
0.166125 0.803862 -0.029146
-0.063563 0.263955 -0.085527
0.143446 0.611794 0.135877
0.164589 0.604859 -0.290496
-0.085805 0.205342 -0.072937
0.140409 0.214941 0.047030
-0.017293 0.640962 -0.239882
0.118787 0.266732 0.077589
-0.082863 0.228406 -0.068249
-0.151243 0.477191 -0.043629
0.119506 0.518243 -0.187328
0.129629 0.199195 0.052674
0.021244 -0.096151 -0.139628
0.172766 0.703239 -0.230156
0.233008 0.446496 0.113424
0.438265 0.820812 -0.383121
-0.054081 0.374075 -0.073820
0.095055 0.188687 -0.101735
0.032050 -0.856300 -0.210850
0.038759 -0.557696 -0.146564
0.060463 -0.146651 -0.147397
0.195096 0.432586 0.122187
0.035835 -0.563093 -0.150292
0.027891 -0.897058 -0.186234
0.113419 0.270558 -0.209991
0.086629 0.102194 -0.184808
0.157188 0.384060 0.124445
0.041049 -0.351305 -0.160298
0.160562 0.365129 0.096374
-0.062495 0.404919 -0.087103
0.176311 0.477857 0.164887
0.176447 0.808259 -0.338290
-0.083402 0.485912 0.023211
-0.116637 0.366215 -0.076229
0.018024 -0.753879 -0.200886
-0.129632 0.449768 -0.058772
0.148472 0.580948 -0.197440
0.071535 0.512482 -0.095781
-0.060280 0.521500 0.032787
0.059489 0.148669 -0.086558
0.053942 -0.070210 -0.181936
0.143510 0.214793 0.048620
0.025324 -0.943644 -0.212398
-0.115955 0.251250 -0.059871
0.108861 0.124606 0.027172
0.098663 0.360224 -0.198179
0.062729 -0.079834 -0.169710
0.065285 0.036775 -0.197755
-0.103433 0.602625 -0.004929
0.089327 0.118648 0.001496
0.203151 0.879626 0.157158
0.286050 0.601524 0.254390
-0.088131 0.290574 -0.050736
0.079946 0.064533 -0.217425
0.033451 -0.661811 -0.165456
0.040406 -0.529036 -0.163572
0.175143 0.672740 0.247638
0.122540 0.242233 -0.204428
-0.056432 0.498941 -0.103370
0.075633 0.130186 -0.218290
-0.142485 0.581890 -0.049434
-0.065225 0.324016 -0.093748
-0.308101 0.484182 -0.028490
0.314817 0.979866 -0.307553
-0.146733 0.439703 -0.045427
0.231412 0.596308 -0.131002
0.047399 -0.522758 -0.179323
-0.077255 0.420074 0.018163
0.134894 0.265293 0.091476
0.020089 0.026698 -0.104243
-0.159018 0.222742 -0.067507
0.074629 -0.003196 -0.181219
-0.059658 0.384152 -0.100826
0.219539 0.561982 -0.130929
0.091248 0.180724 -0.222488
-0.075561 0.428735 0.011538
-0.057872 0.350312 -0.073906
0.097687 0.616269 -0.192256
-0.085712 0.454820 0.009647
0.130834 0.269997 0.060971
-0.280660 0.409833 -0.028289
0.174177 0.599299 0.153017
0.035832 -0.652537 -0.158164
0.133253 0.269566 0.088650
-0.153381 0.543583 -0.038239
0.031091 0.064176 -0.113918
0.259406 0.703170 0.169163
-0.117826 0.297200 -0.068200
0.257496 0.493313 0.137043
-0.055687 0.060377 -0.095726
0.012548 -0.736174 -0.193314
0.020606 -0.907182 -0.199822
-0.078628 0.404366 -0.014711
-0.131643 0.431357 -0.064753
0.193327 0.507709 -0.065355
0.130293 0.356618 -0.213405
0.159064 0.567681 0.142267
0.029189 -0.160240 -0.134198
0.062621 1.001734 -0.283906
0.052935 0.281767 -0.111628
0.152075 0.714156 -0.086157
0.077387 0.054189 -0.025519
0.080794 0.077552 -0.200823
-0.124782 0.215695 -0.077204
-0.088915 0.383195 -0.012044
0.091840 0.209068 -0.197811
0.135058 0.321060 0.080747
0.219126 0.578536 -0.131003
0.030313 -0.130131 -0.122043
0.197330 0.527956 -0.163545
-0.118979 0.210997 -0.082843
-0.223277 0.311345 -0.047638
0.021681 -0.807934 -0.191766
0.026152 -0.878017 -0.194872
-0.064207 0.318708 -0.093552
0.278901 0.566797 0.145721
-0.026166 0.551604 0.181139
-0.024177 0.771062 0.094402
0.037273 0.121670 -0.100270
0.254749 0.536580 0.153510
0.169019 0.252566 0.086099
-0.295969 0.461248 -0.040194
-0.076578 0.535854 0.037632
0.044714 0.060489 -0.101688
0.011358 -0.781086 -0.189231
-0.091562 0.125882 -0.089429
-0.074621 0.558173 -0.114505
0.485427 0.422991 0.035564
-0.057018 0.121325 -0.083613
0.114493 0.236470 -0.192295
-0.064208 0.065271 -0.099113
0.058957 -0.394897 -0.166580
0.208668 0.562177 -0.128043
-0.088348 0.430875 0.009589
-0.062260 0.350312 -0.093585
0.260398 0.541272 0.132836
0.330450 0.837890 0.239209
0.048179 0.159375 -0.253708
0.033121 -0.548360 -0.175451
-0.144785 0.440191 -0.063878
0.273320 0.564197 0.152537
0.011174 -0.946024 -0.204288
0.028617 0.165983 -0.108976
0.138508 0.216872 0.065276
-0.134357 0.380412 -0.062288
0.082299 0.528181 -0.108676
0.249565 0.490002 0.142793
0.063958 -0.070427 -0.189890
0.209756 0.426500 0.119415
0.052916 -0.123529 -0.159217
0.089890 0.049874 -0.027442
0.057507 0.031004 -0.042852
0.214221 0.570826 0.121906
0.039639 -0.025344 -0.112813
0.114842 0.480244 -0.206207
-0.283286 0.432934 -0.038407
0.101726 0.174501 -0.194262
-0.222497 0.321691 -0.048702
0.125094 0.424140 -0.208133
-0.228109 0.295077 -0.038913
0.298354 0.841489 0.237746
0.041934 -0.947176 -0.182865
0.103518 0.151403 0.013282
0.008280 -0.843429 -0.193180
0.118008 0.334279 -0.204706
0.140543 0.225288 0.054675
0.115412 0.413835 -0.190567
0.042409 0.032844 -0.074089
-0.067612 0.301575 -0.088853
0.177644 0.503536 0.171636
0.135872 0.345142 0.096650
0.158460 0.983676 -0.186235
-0.271303 0.407640 -0.035174
0.052371 -0.524441 -0.154086
0.228950 0.570456 0.221629
0.048231 0.090514 -0.102432
-0.224118 0.293100 -0.049929
-0.052342 0.542711 -0.103126
0.011871 -0.872486 -0.218115
0.091412 1.087629 -0.023271
0.030737 -0.080319 -0.130809
0.100737 0.539892 -0.133878
0.045817 -0.389336 -0.160732
0.051229 0.091613 -0.233624
0.030071 -0.645577 -0.165095
-0.097579 0.175318 -0.090086
0.144784 0.345127 0.096765
0.370698 0.833267 -0.107386
0.068697 -0.067874 -0.187947
-0.054623 0.453465 -0.094284
0.138694 0.513926 -0.206901
-0.144121 0.464752 -0.054012
-0.172690 0.243330 -0.067370
0.032904 -0.149368 -0.150012
0.032233 -0.133318 -0.145081
0.192286 0.508795 0.163125
0.093664 0.183500 -0.203487
0.102312 0.220276 -0.198741
0.050052 -0.383406 -0.167588
0.044688 -0.903233 -0.191680
0.048175 -0.099099 -0.121062
0.128800 0.459439 -0.186359
0.059541 0.051723 -0.031185
0.033452 -0.525186 -0.156304
0.028094 -0.297829 -0.149490
0.130740 0.210156 0.035910
0.048738 -0.122592 -0.169503
-0.138606 0.211683 -0.080739
-0.064945 0.125702 -0.087215
0.080831 0.500092 -0.110394
0.038016 -0.045383 -0.118580
0.056496 0.226742 -0.098284
-0.216820 0.309207 -0.057179
0.265393 0.561540 0.146876
-0.280812 0.400782 -0.032742
0.110788 0.506761 -0.039655
0.025472 -0.998073 -0.191536
-0.066398 0.496660 -0.110709
0.015363 -0.957796 -0.208014
-0.280717 0.427094 -0.022888
-0.147487 0.430282 -0.069924
0.034003 -0.435886 -0.157863
0.047430 0.072969 -0.048154
0.075680 0.106985 -0.197993
0.214810 0.455784 0.132437
0.035754 -0.312450 -0.152730
0.121395 0.506874 -0.205693
0.181109 0.489496 0.158959
0.151269 0.520132 -0.194798
0.041149 -0.292867 -0.145761
0.059523 0.349276 -0.106360
0.045604 -0.134614 -0.119171
0.103841 0.093391 0.003797
0.287470 0.746419 -0.024539
0.129835 0.502128 -0.191040
-0.084346 0.139050 -0.074798
0.051828 -0.713752 -0.179155
-0.146393 0.213593 -0.063912
0.037701 -0.078821 -0.101334
0.030699 -0.685717 -0.165433
0.047710 -0.445877 -0.173416
-0.117086 0.284819 -0.074562
0.047234 -0.192886 -0.134464
-0.073746 0.173385 -0.142573
0.025518 -0.655879 -0.186918
0.236595 0.835018 -0.167557
0.044694 0.214066 -0.275930
0.014195 -0.895414 -0.205058
0.023705 -0.064309 -0.139863
-0.035369 -0.018942 -0.103850
0.029416 -0.598391 -0.191231
0.087238 0.044015 -0.193939
0.027381 -0.899239 -0.216746
0.182480 0.598701 -0.211061
0.048397 -0.037455 -0.113053
0.056477 0.035516 -0.066926
0.142822 0.312850 0.092823
0.070388 0.042665 -0.201475
0.048209 0.181316 -0.097219
0.034050 0.184936 -0.263613
0.082167 0.387330 -0.097107
-0.148322 0.426097 -0.058950
0.137758 0.802906 -0.161966
-0.150911 0.458048 -0.071110
0.107752 0.577408 -0.148608
0.049370 0.153018 -0.083159
0.035769 0.076933 -0.105954
0.027936 -0.559048 -0.176288
0.188654 0.479615 0.174582
0.097587 0.136836 0.007633
-0.068399 0.324013 -0.086422
-0.045037 0.007234 -0.107423
0.279604 0.651662 0.025776
0.047240 -0.033934 -0.104872
0.108619 0.941397 -0.016642
0.040225 -0.013235 -0.102746
0.044328 -0.247035 -0.138495
-0.065656 0.554068 -0.111230
0.027518 -0.949385 -0.207091
0.251544 0.556981 0.148168
0.045904 0.260678 -0.104846
0.044386 -0.608635 -0.159123
-0.054406 0.361686 -0.094384
0.131172 0.225294 0.050987
-0.064627 0.317895 -0.088051
0.024065 0.076506 -0.104267
-0.222772 0.721995 -0.074103
0.052920 -0.339140 -0.161071
0.031536 0.157069 -0.265290
0.033657 -0.606035 -0.155882
-0.048707 0.312515 -0.089706
0.107263 0.539014 -0.119517
-0.123512 0.417352 -0.066082
0.030502 -0.782113 -0.179439
0.163491 0.711050 -0.184679
-0.252128 0.385679 -0.040249
-0.100915 0.224302 -0.154594
0.102233 0.638383 -0.134728
0.056697 -0.048247 -0.175848
0.308200 0.698697 -0.245074
0.030797 -0.503921 -0.170104
-0.100787 0.171285 -0.084902
0.109766 0.160316 0.033380
0.273561 0.582637 0.146623
0.082224 0.096075 -0.219187
0.121733 0.790789 -0.059574
0.224556 0.855020 -0.100761
-0.122485 0.200410 -0.071226
-0.042385 0.322821 -0.087199
-0.065787 0.254009 -0.082651
-0.296900 0.420045 -0.041813
0.051392 -0.346630 -0.165318
-0.048818 0.529868 -0.105692
0.175261 0.381370 0.113368
0.034761 -0.158848 -0.152062
0.138831 0.598224 -0.187849
-0.061358 0.256366 -0.096276
0.029870 -0.053523 -0.125547
0.159743 0.386998 0.099331
0.114410 0.347244 -0.218806
0.152043 0.750027 -0.261272
0.038336 -0.639728 -0.181983
0.042463 -0.642254 -0.165886
0.034262 0.115602 -0.111725
0.050448 -0.225696 -0.129095
0.025324 -0.882218 -0.191672
0.035934 0.108426 -0.110638
-0.159014 0.235370 -0.077251
0.033003 -0.894265 -0.197656
-0.046216 0.347265 -0.088823
0.067820 0.153043 -0.110282
0.084164 0.075124 -0.191441
0.071947 0.536163 -0.081256
0.032916 -0.977663 -0.210171
-0.064212 0.084635 -0.095083
0.093231 0.071034 -0.207947
0.119684 0.144468 0.020825
0.061250 -0.375889 -0.150500
-0.060075 0.065723 -0.104065
0.111578 0.334367 -0.196869
0.292720 0.887852 0.205300
0.088362 0.179884 -0.200842
0.119968 0.435687 -0.216496
-0.136051 0.426437 -0.048656
0.025074 0.141209 -0.257521
0.110805 0.394074 -0.192683
